# .PCD v0.7 - Point Cloud Data file format
VERSION 0.7
FIELDS x y z
SIZE 4 4 4
TYPE F F F
COUNT 1 1 1
WIDTH 1772
HEIGHT 1
VIEWPOINT 0 0 0 1 0 0 0
POINTS 1772
DATA ascii
0.61500001 14.645 -1.24
0.59299999 14.66 -1.2410001
0.546 14.642 -1.239
0.50099999 14.662 -1.2410001
0.45500001 14.657 -1.24
0.40900001 14.682 -1.242
0.36300001 14.668 -1.2410001
0.31600001 14.631 -1.237
0.29300001 14.665 -1.2410001
0.24699999 14.648 -1.239
0.20100001 14.623 -1.2359999
0.155 14.648 -1.239
0.109 14.708 -1.244
0.063000001 14.666 -1.24
0.039999999 14.666 -1.24
-0.0060000001 14.664 -1.24
-0.052000001 14.684 -1.242
-0.097999997 14.64 -1.238
-0.14399999 14.664 -1.24
-0.19 14.669 -1.2410001
-0.236 14.65 -1.239
-0.259 14.634 -1.237
-0.30500001 14.635 -1.238
-0.35100001 14.622 -1.2359999
-0.39700001 14.635 -1.238
-0.44400001 14.66 -1.24
-0.491 14.686 -1.243
-0.53299999 14.593 -1.234
-0.55599999 14.596 -1.234
-0.60500002 14.656 -1.2410001
-0.65100002 14.664 -1.2410001
-0.69800001 14.678 -1.243
-0.74599999 14.713 -1.247
-0.79100001 14.691 -1.245
-0.84600002 14.837 -1.2589999
-0.87800002 14.977 -1.273
-0.93099999 15.063 -1.2819999
-1.487 22.695 -2.0339999
-1.279 17.879 -1.5599999
-1.327 17.761999 -1.549
-1.767 22.608999 -2.027
-1.802 22.591999 -2.026
-1.873 22.594 -2.027
-1.943 22.572001 -2.0250001
-2.0139999 22.573999 -2.026
-2.0829999 22.546 -2.0239999
-2.155 22.545 -2.0239999
-2.2249999 22.534 -2.0239999
-2.2639999 22.559999 -2.027
-2.336 22.569 -2.029
-2.4100001 22.587 -2.0309999
-2.4779999 22.556 -2.029
-2.5550001 22.601 -2.0339999
-2.6259999 22.594999 -2.0339999
-2.7030001 22.632 -2.039
-2.737 22.620001 -2.0380001
-2.8199999 22.705999 -2.0469999
-2.8970001 22.739 -2.0510001
-2.977 22.792999 -2.0580001
-3.056 22.844 -2.0639999
-3.1300001 22.85 -2.0650001
-3.2060001 22.868 -2.0680001
-3.244 22.881001 -2.0699999
-3.322 22.91 -2.0739999
-3.3989999 22.931 -2.0769999
-3.4749999 22.948 -2.0799999
-3.5539999 22.98 -2.0840001
-3.6340001 23.02 -2.089
-3.6760001 23.051001 -2.0929999
-3.7590001 23.1 -2.099
-3.8380001 23.129999 -2.1029999
-3.908 23.1 -2.1010001
-3.971 23.035 -2.096
-4.02 22.889 -2.082
-4.086 22.844999 -2.079
-4.086 22.642 -2.0599999
-4.0089998 21.825001 -1.979
-4.0479999 21.653999 -1.964
-4.125 21.690001 -1.9680001
-4.191 21.667 -1.9680001
-4.2449999 21.583 -1.96
-1.24 6.2969999 -0.43000001
-1.251 6.2969999 -0.43000001
-1.27 6.2909999 -0.43000001
-4.5450001 21.5 -1.9579999
-4.559 21.236 -1.933
-4.592 21.068001 -1.918
-4.6589999 21.056 -1.918
-4.6929998 21.052 -1.918
-4.7610002 21.045 -1.919
-4.8330002 21.059 -1.9220001
-4.9050002 21.066999 -1.924
-4.967 21.034 -1.923
-4.7659998 19.908001 -1.8099999
-5.073 20.896 -1.9119999
-5.1539998 21.084 -1.932
-4.9130001 19.833 -1.807
-4.961 19.761999 -1.801
-5.0120001 19.702 -1.7970001
-5.0599999 19.634001 -1.791
-5.1399999 19.687 -1.798
-5.1760001 19.700001 -1.801
-5.2199998 19.615999 -1.794
-5.3080001 19.695999 -1.803
-5.3839998 19.731001 -1.809
-5.4640002 19.778999 -1.8150001
-5.5890002 19.986 -1.8380001
-5.6269999 19.882 -1.829
-5.684 19.846001 -1.8279999
-5.7389998 19.919001 -1.836
-5.8099999 19.929001 -1.839
-5.8829999 19.945 -1.842
-5.9499998 19.941999 -1.844
-6.0170002 19.938 -1.845
-6.079 19.917999 -1.845
-6.1139998 19.917 -1.846
-6.1669998 19.870001 -1.8430001
-6.1960001 19.742001 -1.832
-6.2509999 19.702 -1.83
-6.323 19.714001 -1.8329999
-6.4039998 19.753 -1.839
-6.5 19.834999 -1.85
-4.875 14.82 -1.332
-6.5339999 19.628 -1.832
-6.605 19.634001 -1.835
-4.823 14.212 -1.274
-4.842 14.122 -1.266
-4.8940001 14.129 -1.268
-4.928 14.084 -1.265
-5.0229998 14.282 -1.2869999
-5.0289998 14.158 -1.276
-5.0289998 14.018 -1.263
-5.0999999 14.077 -1.27
-5.073 13.867 -1.25
-5.125 13.873 -1.252
-5.2820001 14.159 -1.284
-5.302 14.145 -1.284
-5.1929998 13.725 -1.2410001
-5.2490001 13.744 -1.245
-5.1760001 13.427 -1.2130001
-5.2989998 13.618 -1.235
-5.3649998 13.66 -1.2410001
-5.3600001 13.523 -1.229
-5.4499998 13.685 -1.247
-5.4629998 13.594 -1.239
-5.3559999 13.21 -1.2
-5.401 13.202 -1.201
-5.4050002 13.093 -1.191
-5.4450002 13.074 -1.191
-5.3709998 12.786 -1.1619999
-6.0229998 14.267 -1.321
-5.4099998 12.711 -1.1569999
-5.401 12.579 -1.1440001
-5.9959998 13.839 -1.281
-5.875 13.445 -1.2410001
-6.0149999 13.646 -1.265
-6.0019999 13.561 -1.256
-6.1339998 13.741 -1.278
-6.1490002 13.659 -1.271
-6.243 13.752 -1.283
-6.3010001 13.764 -1.2869999
-5.7069998 12.37 -1.138
-6.2030001 13.331 -1.244
-6.197 13.264 -1.238
-6.0469999 12.838 -1.194
-5.9520001 12.537 -1.163
-6.0019999 12.54 -1.165
-6.1869998 12.822 -1.198
-6.3720002 13.097 -1.23
-6.408 13.066 -1.229
-6.4200001 13.04 -1.227
-6.3969998 12.892 -1.2130001
-6.1020002 12.203 -1.14
-6.4629998 12.821 -1.21
-6.4759998 12.747 -1.204
-6.3600001 12.424 -1.171
-6.6170001 12.825 -1.217
-6.342 12.248 -1.154
-6.303 12.08 -1.138
-6.2480001 11.884 -1.118
-6.2859998 11.866 -1.119
-6.4520001 12.085 -1.145
-6.4520001 11.994 -1.137
-6.5219998 12.033 -1.1440001
-6.4369998 11.833 -1.123
-6.7919998 12.391 -1.188
-6.3579998 11.517 -1.092
-6.52 11.721 -1.117
-7.0300002 12.542 -1.212
-6.7150002 11.895 -1.141
-6.7090001 11.797 -1.133
-6.8369999 11.979 -1.154
-6.7290001 11.705 -1.126
-6.7420001 11.643 -1.1210001
-6.8010001 11.659 -1.126
-6.809 11.59 -1.12
-6.816 11.519 -1.114
-6.8099999 11.427 -1.1059999
-6.6599998 11.137 -1.074
-6.882 11.424 -1.11
-6.7280002 11.091 -1.074
-6.8239999 11.17 -1.085
-6.875 11.174 -1.0880001
-6.9190001 11.168 -1.09
-6.98 11.186 -1.095
-6.9299998 11.068 -1.082
-6.9759998 11.064 -1.084
-6.9380002 10.928 -1.071
-7.0320001 11 -1.082
-7.0440001 10.943 -1.0779999
-7.1030002 10.957 -1.082
-7.1129999 10.936 -1.081
-7.1950002 10.985 -1.09
-7.1550002 10.852 -1.076
-7.191 10.831 -1.077
-7.46 11.158 -1.118
-7.4759998 11.107 -1.115
-7.8969998 11.651 -1.182
-7.7140002 11.344 -1.147
-7.5029998 10.961 -1.104
-7.395 10.731 -1.08
-8.4729996 12.207 -1.2589999
-7.6009998 10.883 -1.104
-8.1379995 11.571 -1.189
-8.4239998 11.896 -1.232
-8.4139996 11.842 -1.227
-8.46 11.829 -1.228
-8.3319998 11.573 -1.2
-8.1759996 11.283 -1.168
-8.651 11.858 -1.2410001
-8.0860004 11.013 -1.142
-8.073 10.924 -1.1339999
-8.2250004 11.092 -1.156
-7.3870001 9.9020004 -1.013
-8.1120005 10.798 -1.126
-7.8520002 10.386 -1.079
-8.0780001 10.614 -1.11
-8.0799999 10.548 -1.105
-8.1999998 10.634 -1.119
-8.2049999 10.607 -1.117
-8.2180004 10.555 -1.114
-8.2130003 10.48 -1.108
-8.2119999 10.412 -1.102
-8.2130003 10.346 -1.097
-8.3470001 10.447 -1.113
-8.5930004 10.72 -1.149
-8.4139996 10.43 -1.1160001
-8.5129995 10.485 -1.126
-8.4779997 10.375 -1.1160001
-8.8739996 10.789 -1.1720001
-8.2690001 9.9919996 -1.074
-9.0780001 10.896 -1.193
-8.302 9.9370003 -1.072
-9.1309996 10.855 -1.193
-9.1169996 10.77 -1.186
-8.3039999 9.75 -1.058
-8.3579998 9.7510004 -1.061
-8.3979998 9.7360001 -1.063
-8.4879999 9.7779999 -1.072
-10.125 11.583 -1.311
-8.8470001 10.094 -1.118
-8.7609997 9.9329996 -1.101
-8.5780001 9.665 -1.069
-8.5880003 9.6160002 -1.066
-8.6529999 9.6269999 -1.071
-8.6739998 9.5900002 -1.0700001
-8.7480001 9.6409998 -1.0779999
-8.7139997 9.5430002 -1.069
-8.7449999 9.5170002 -1.069
-8.7799997 9.4949999 -1.0700001
-8.7980003 9.4540005 -1.068
-10.121 10.803 -1.2539999
-8.7650003 9.302 -1.0549999
-8.9049997 9.4200001 -1.073
-8.9759998 9.4350004 -1.079
-8.882 9.2790003 -1.061
-8.7650003 9.099 -1.041
-8.7449999 9.0220003 -1.034
-8.8620005 9.085 -1.046
-8.9589996 9.1269999 -1.056
-8.9329996 9.0719995 -1.05
-10.045 10.133 -1.201
-9.3540001 9.3800001 -1.101
-10.089 10.05 -1.198
-10.12 10.018 -1.198
-10.129 9.9639997 -1.1950001
-10.091 9.8950005 -1.188
-10.112 9.8540001 -1.187
-10.124 9.8039999 -1.184
-10.129 9.7469997 -1.1799999
-10.129 9.6870003 -1.176
-10.135 9.632 -1.173
-10.146 9.5819998 -1.171
-10.131 9.5080004 -1.164
-10.127 9.474 -1.1619999
-10.123 9.4110003 -1.1569999
-10.127 9.3549995 -1.154
-10.132 9.302 -1.151
-10.135 9.2460003 -1.147
-10.135 9.1870003 -1.143
-10.135 9.1300001 -1.14
-10.124 9.092 -1.136
-10.125 9.0349998 -1.133
-10.125 8.9779997 -1.1289999
-10.174 8.9639997 -1.132
-10.239 8.9650002 -1.136
-10.291 8.9540005 -1.14
-10.343 8.9700003 -1.145
-10.411 8.9709997 -1.15
-10.473 8.9680004 -1.154
-10.526 8.9560003 -1.1569999
-10.779 9.1129999 -1.186
-10.928 9.1800003 -1.202
-11.009 9.1879997 -1.2079999
-11.056 9.198 -1.212
-11.12 9.1920004 -1.217
-11.192 9.1920004 -1.222
-11.256 9.1859999 -1.227
-11.33 9.1870003 -1.232
-11.402 9.1859999 -1.238
-11.482 9.191 -1.244
-11.536 9.2040005 -1.249
-11.605 9.1999998 -1.2539999
-11.672 9.1929998 -1.2589999
-11.74 9.1870003 -1.2640001
-11.828 9.1960001 -1.271
-11.898 9.191 -1.276
-11.973 9.1879997 -1.2819999
-12.028 9.2010002 -1.2869999
-12.116 9.2069998 -1.294
-12.18 9.1960001 -1.299
-12.252 9.1899996 -1.304
-12.332 9.1890001 -1.3099999
-12.409 9.1859999 -1.316
-12.478 9.2060003 -1.323
-12.567 9.2119999 -1.33
-12.63 9.1969995 -1.334
-12.724 9.2030001 -1.342
-12.803 9.1990004 -1.348
-12.88 9.1940002 -1.354
-12.943 9.177 -1.358
-12.956 9.125 -1.3559999
-12.944 9.0869999 -1.353
-12.951 9.0310001 -1.351
-12.965 8.9799995 -1.349
-13.052 8.9799995 -1.3559999
-13.146 8.9840002 -1.364
-13.238 8.9860001 -1.3710001
-13.295 8.9940004 -1.376
-13.381 8.9910002 -1.383
-13.469 8.9890003 -1.39
-13.555 8.9849997 -1.397
-14.055 9.2510004 -1.452
-14.16 9.257 -1.461
-14.249 9.2510004 -1.469
-14.333 9.2729998 -1.477
-14.425 9.2690001 -1.484
-14.518 9.2639999 -1.4910001
-14.615 9.2609997 -1.499
-14.716 9.2600002 -1.508
-14.814 9.257 -1.516
-14.916 9.2559996 -1.524
-14.992 9.2700005 -1.531
-15.089 9.2639999 -1.539
-15.206 9.2700005 -1.549
-15.308 9.2670002 -1.557
-15.401 9.2559996 -1.5650001
-15.505 9.2530003 -1.573
-15.616 9.2530003 -1.5829999
-15.713 9.2770004 -1.592
-15.828 9.2770004 -1.602
-15.931 9.2709999 -1.61
-15.957 9.2180004 -1.61
-15.968 9.158 -1.608
-15.968 9.0909996 -1.605
-15.951 9.0489998 -1.601
-16.031 9.0279999 -1.607
-16.243999 9.0799999 -1.628
-7.2509999 4.04 -0.61500001
-7.2270002 3.997 -0.611
-8.1029997 4.0240002 -0.68800002
-8.1300001 4.006 -0.69
-8.1309996 3.99 -0.68900001
-8.1630001 3.974 -0.69099998
-8.0010004 3.727 -0.667
-8.0059996 3.698 -0.66600001
-8.0059996 3.668 -0.66500002
-8.0139999 3.641 -0.66399997
-8.8100004 3.9330001 -0.74699998
-8.8179998 3.9200001 -0.74800003
-8.849 3.901 -0.75
-8.8859997 3.8840001 -0.75199997
-8.9209995 3.865 -0.755
-8.9350004 3.8380001 -0.755
-8.9390001 3.8069999 -0.75400001
-8.9530001 3.78 -0.75400001
-8.9639997 3.7679999 -0.755
-8.908 3.7119999 -0.74800003
-8.8109999 3.6389999 -0.736
-8.835 3.6170001 -0.73699999
-8.8839998 3.6040001 -0.741
-9.6359997 3.8710001 -0.81999999
-9.7539997 3.8829999 -0.83099997
-9.7639999 3.869 -0.83099997
-9.9350004 3.829 -0.84600002
-8.0620003 3.0539999 -0.64600003
-8.0360003 3.016 -0.64300001
-8.0220003 2.9960001 -0.64099997
-7.2649999 2.664 -0.56
-7.3540001 2.6440001 -0.56699997
-8.8190002 3.0869999 -0.71700001
-8.8310003 3.0599999 -0.71799999
-8.8610001 3.04 -0.72000003
-8.9209995 3.029 -0.72500002
-8.1470003 2.74 -0.64399999
-8.0129995 2.6259999 -0.62800002
-9.427 2.632 -0.76099998
-9.5469999 2.632 -0.77200001
-9.6920004 2.6389999 -0.78600001
-23.927999 6.3559999 -2.2320001
-23.938 6.2779999 -2.2309999
-24.033001 6.2220001 -2.2379999
-24.073999 6.152 -2.24
-24.143 6.0890002 -2.2460001
-24.188999 6.02 -2.2479999
-24.278999 5.961 -2.256
-24.339001 5.9349999 -2.2609999
-24.408001 5.8709998 -2.266
-24.533001 5.8189998 -2.276
-24.597 5.7529998 -2.2809999
-24.691 5.6929998 -2.289
-24.733999 5.6209998 -2.2909999
-24.773001 5.5479999 -2.293
-24.827999 5.52 -2.2980001
-24.882999 5.4499998 -2.302
-24.936001 5.3790002 -2.306
-24.955 5.3010001 -2.306
-25.021999 5.2329998 -2.3110001
-25.129999 5.1739998 -2.3199999
-25.195 5.1040001 -2.325
-25.281 5.0799999 -2.3329999
-25.377001 5.0170002 -2.3410001
-25.405001 4.9390001 -2.342
-25.497999 4.8740001 -2.3499999
-25.594 4.809 -2.358
-25.652 4.737 -2.362
-25.802 4.6799998 -2.3759999
-25.896999 4.6560001 -2.3840001
-26.047001 4.598 -2.398
-26.080999 4.52 -2.4000001
-25.971001 4.4169998 -2.388
-25.858999 4.3140001 -2.375
-25.785999 4.2189999 -2.3659999
-25.712999 4.1240001 -2.358
-25.636999 4.0710001 -2.3499999
-25.610001 3.984 -2.346
-25.563 3.895 -2.3399999
-25.532 3.8080001 -2.335
-25.503 3.7219999 -2.3310001
-25.431 3.6300001 -2.323
-25.378 3.582 -2.3169999
-25.344 3.4960001 -2.313
-25.27 3.405 -2.3039999
-25.202999 3.3150001 -2.2969999
-25.188 3.233 -2.2939999
-25.143 3.1470001 -2.289
-25.084999 3.0599999 -2.2820001
-25.052999 3.016 -2.2780001
-25.014 2.931 -2.2739999
-24.966 2.846 -2.2679999
-24.959 2.766 -2.266
-24.891001 2.6800001 -2.2590001
-24.871 2.598 -2.256
-24.832001 2.516 -2.2509999
-24.790001 2.4719999 -2.247
-24.756001 2.3900001 -2.243
-24.732 2.309 -2.24
-24.697001 2.2279999 -2.2360001
-24.66 2.1470001 -2.2309999
-24.653 2.0680001 -2.23
-24.601999 1.9859999 -2.224
-24.591 1.946 -2.223
-24.534 1.864 -2.217
-24.52 1.786 -2.2149999
-24.504999 1.707 -2.2130001
-24.495001 1.6289999 -2.211
-24.466 1.55 -2.2079999
-24.465 1.473 -2.207
-24.466999 1.4349999 -2.207
-24.489 1.359 -2.2090001
-24.485001 1.281 -2.2079999
-24.500999 1.205 -2.2090001
-24.500999 1.128 -2.2090001
-24.528 1.052 -2.211
-24.514 1.013 -2.21
-24.533001 0.93599999 -2.211
-24.518 0.85900003 -2.21
-24.538 0.78200001 -2.211
-24.528999 0.70499998 -2.21
-24.545 0.62800002 -2.2119999
-24.549999 0.551 -2.2119999
-24.555 0.51200002 -2.2119999
-24.561001 0.435 -2.2130001
-24.573999 0.35800001 -2.214
-24.584999 0.28099999 -2.2149999
-24.584 0.204 -2.2149999
-24.596001 0.127 -2.2160001
-24.614 0.050000001 -2.2179999
-24.608 0.011 -2.217
-24.629999 -0.066 -2.2190001
-24.620001 -0.14399999 -2.2179999
-24.636999 -0.221 -2.22
-24.646 -0.29899999 -2.221
-24.669001 -0.377 -2.223
-24.67 -0.454 -2.223
-24.681 -0.493 -2.2249999
-24.687 -0.57099998 -2.2249999
-24.707001 -0.64899999 -2.2279999
-24.719 -0.727 -2.2290001
-24.715 -0.80500001 -2.2290001
-24.733999 -0.88300002 -2.2309999
-24.749001 -0.96200001 -2.233
-24.785 -1.002 -2.2360001
-24.84 -1.082 -2.2420001
-24.9 -1.164 -2.2479999
-24.914 -1.243 -2.25
-24.903999 -1.321 -2.2490001
-24.6 -1.382 -2.22
-24.649 -1.462 -2.2249999
-24.575001 -1.4960001 -2.2179999
-24.573999 -1.574 -2.2190001
-24.552999 -1.65 -2.217
-24.466 -1.721 -2.2090001
-24.375 -1.7920001 -2.201
-24.091999 -1.847 -2.1730001
-22.344999 -1.7460001 -2.0009999
-22.224001 -1.807 -1.99
-20.9 -1.7640001 -1.86
-19.790001 -1.7309999 -1.751
-19.316999 -1.873 -1.706
-16.612 -1.66 -1.4400001
-16.149 -1.664 -1.3940001
-15.709 -1.668 -1.351
-15.323 -1.675 -1.314
-15.01 -1.664 -1.283
-14.629 -1.668 -1.2460001
-14.529 -1.702 -1.237
-14.407 -1.734 -1.225
-14.315 -1.768 -1.216
-14.242 -1.8049999 -1.21
-14.211 -1.846 -1.207
-14.18 -1.865 -1.205
-14.158 -1.9069999 -1.2029999
-14.125 -1.948 -1.2
-14.091 -1.988 -1.197
-14.085 -2.0320001 -1.197
-14.066 -2.075 -1.196
-14.048 -2.1170001 -1.1950001
-14.039 -2.138 -1.1950001
-14.016 -2.1800001 -1.193
-14.011 -2.224 -1.193
-14.004 -2.2679999 -1.193
-13.991 -2.3110001 -1.193
-13.988 -2.3559999 -1.193
-13.978 -2.3989999 -1.193
-13.992 -2.424 -1.1950001
-14.026 -2.4760001 -1.199
-13.986 -2.5139999 -1.196
-13.986 -2.559 -1.196
-13.996 -2.6070001 -1.198
-13.984 -2.6500001 -1.198
-13.995 -2.675 -1.199
-13.99 -2.72 -1.2
-14.015 -2.77 -1.2029999
-14.014 -2.816 -1.204
-14.038 -2.8670001 -1.207
-13.973 -2.8989999 -1.201
-14.192 -3.0150001 -1.225
-14.095 -3.04 -1.216
-14.241 -3.119 -1.232
-14.09 -3.132 -1.217
-9.375 -2.1059999 -0.74299997
-9.3100004 -2.122 -0.73799998
-8.2729998 -2.2420001 -0.64200002
-8.5480003 -2.346 -0.67000002
-8.5100002 -2.3499999 -0.667
-8.5240002 -2.3829999 -0.66900003
-7.6939998 -2.2 -0.58600003
-7.6960001 -2.266 -0.588
-8.5100002 -2.5380001 -0.67199999
-8.4429998 -2.5469999 -0.66600001
-7.8600001 -2.3959999 -0.60699999
-7.9949999 -2.4649999 -0.62099999
-8.0179996 -2.5 -0.625
-7.7309999 -2.4360001 -0.59600002
-7.7160001 -2.4449999 -0.59500003
-9.2819996 -2.9790001 -0.75700003
-9.2690001 -3.007 -0.75700003
-9.2679996 -3.039 -0.75800002
-9.2659998 -3.0699999 -0.759
-9.257 -3.0999999 -0.759
-9.2659998 -3.135 -0.75999999
-9.276 -3.155 -0.76200002
-9.2679996 -3.1849999 -0.76200002
-9.2690001 -3.2179999 -0.76300001
-9.2740002 -3.2520001 -0.76499999
-9.2580004 -3.279 -0.764
-9.2659998 -3.3150001 -0.76599997
-8.4779997 -3.1059999 -0.68699998
-8.3719997 -3.096 -0.676
-8.3319998 -3.112 -0.67299998
-8.3669996 -3.155 -0.67799997
-8.3590002 -3.1819999 -0.67799997
-8.3450003 -3.2060001 -0.67799997
-8.3640003 -3.2290001 -0.68000001
-8.3520002 -3.2539999 -0.68000001
-8.3450003 -3.2820001 -0.68000001
-8.3590002 -3.3180001 -0.68300003
-8.2969999 -3.46 -0.68300003
-8.2700005 -3.4790001 -0.68099999
-8.2659998 -3.5090001 -0.68199998
-8.2399998 -3.543 -0.68099999
-7.6069999 -3.4549999 -0.62
-7.5809999 -3.4719999 -0.61900002
-7.5539999 -3.4879999 -0.61699998
-7.533 -3.507 -0.616
-7.5050001 -3.523 -0.61400002
-14.825 -7.0440001 -1.4119999
-14.85 -7.1129999 -1.4170001
-14.705 -7.1290002 -1.405
-14.663 -7.1659999 -1.403
-11.581 -5.698 -1.067
-11.573 -5.7399998 -1.069
-11.573 -5.7849998 -1.071
-11.505 -5.796 -1.0650001
-14.539 -7.3610001 -1.4
-14.712 -7.566 -1.425
-14.324 -7.48 -1.387
-11.382 -5.9829998 -1.063
-13.916 -7.349 -1.346
-11.242 -5.9770002 -1.05
-11.172 -5.9850001 -1.045
-11.407 -6.204 -1.075
-11.042 -6.0489998 -1.036
-11.11 -6.132 -1.046
-10.898 -6.0370002 -1.023
-10.933 -6.1020002 -1.03
-10.858 -6.105 -1.023
-10.76 -6.0939999 -1.0140001
-10.708 -6.1090002 -1.011
-10.592 -6.086 -1
-10.525 -6.092 -0.99400002
-10.601 -6.158 -1.0039999
-10.515 -6.152 -0.99599999
-10.344 -6.0960002 -0.97899997
-10.271 -6.0960002 -0.97299999
-10.355 -6.191 -0.98500001
-10.276 -6.1869998 -0.97799999
-10.089 -6.1170001 -0.95899999
-10.035 -6.1059999 -0.95300001
-10.021 -6.1399999 -0.954
-9.9370003 -6.132 -0.94700003
-9.8739996 -6.1360002 -0.94199997
-9.8170004 -6.1430001 -0.93699998
-9.6619997 -6.0879998 -0.921
-9.7250004 -6.171 -0.93099999
-9.875 -6.2880001 -0.94999999
-9.7709999 -6.2649999 -0.94
-9.7209997 -6.276 -0.93599999
-9.5649996 -6.217 -0.92000002
-9.4849997 -6.2080002 -0.91299999
-9.441 -6.2210002 -0.91000003
-9.3219995 -6.1849999 -0.89899999
-9.2889996 -6.184 -0.89600003
-9.3929996 -6.296 -0.91000003
-9.2480001 -6.2410002 -0.89600003
-9.2139997 -6.2600002 -0.89399999
-9.1269999 -6.243 -0.88599998
-8.9989996 -6.1960001 -0.87300003
-8.8070002 -6.0830002 -0.85100001
-13.101 -9.1260004 -1.368
-13.026 -9.1350002 -1.363
-8.0469999 -5.6690001 -0.76700002
-7.9759998 -5.6560001 -0.75999999
-7.9180002 -5.652 -0.755
-7.8740001 -5.658 -0.75199997
-7.822 -5.6389999 -0.74699998
-7.7800002 -5.6459999 -0.74400002
-7.743 -5.6560001 -0.74199998
-7.6929998 -5.6570001 -0.73799998
-7.6399999 -5.6550002 -0.73299998
-7.592 -5.6560001 -0.73000002
-7.5650001 -5.6550002 -0.727
-7.4970002 -5.6399999 -0.72100002
-7.4780002 -5.6630001 -0.72100002
-7.4299998 -5.6630001 -0.71700001
-7.3909998 -5.671 -0.71499997
-7.3410001 -5.6680002 -0.71100003
-7.3049998 -5.678 -0.708
-7.256 -5.6570001 -0.70300001
-7.2189999 -5.665 -0.70099998
-7.164 -5.658 -0.69599998
-7.118 -5.658 -0.69300002
-7.0689998 -5.6560001 -0.68900001
-7.0250001 -5.6570001 -0.68599999
-6.9840002 -5.6599998 -0.68300003
-6.9580002 -5.6570001 -0.68000001
-6.9109998 -5.6550002 -0.67699999
-6.8720002 -5.6589999 -0.67400002
-6.8280001 -5.658 -0.671
-6.7940001 -5.6659999 -0.66900003
-6.7490001 -5.664 -0.66500002
-6.711 -5.6680002 -0.66299999
-6.6810002 -5.6609998 -0.66000003
-6.6370001 -5.6599998 -0.65600002
-6.612 -5.6739998 -0.65499997
-6.605 -5.704 -0.65700001
-6.6079998 -5.743 -0.66000003
-6.6090002 -5.7810001 -0.662
-6.6090002 -5.8169999 -0.66399997
-6.6160002 -5.842 -0.667
-6.6149998 -5.8790002 -0.66900003
-6.619 -5.9200001 -0.67199999
-6.605 -5.9450002 -0.67199999
-6.7360001 -6.1020002 -0.69199997
-6.724 -6.1300001 -0.69300002
-6.5700002 -6.007 -0.67400002
-6.5760002 -6.0510001 -0.67699999
-6.7080002 -6.2119999 -0.69800001
-6.6279998 -6.1760001 -0.68900001
-6.5809999 -6.171 -0.68599999
-6.6389999 -6.2659998 -0.69599998
-6.6269999 -6.2930002 -0.69700003
-11.825 -11.294 -1.406
-11.818 -11.359 -1.41
-6.6630001 -6.428 -0.70899999
-6.5430002 -6.3520002 -0.69499999
-6.527 -6.3769999 -0.69599998
-8.7629995 -8.6280003 -1.008
-8.658 -8.5780001 -0.99699998
-8.8179998 -8.7650003 -1.021
-9 -9.0019999 -1.05
-8.9879999 -9.0480003 -1.052
-9.2329998 -9.3540001 -1.091
-8.7449999 -8.9130001 -1.026
-8.8629999 -9.0909996 -1.0470001
-8.7320004 -8.9840002 -1.03
-8.7440004 -9.0530005 -1.036
-8.6459999 -9.0089998 -1.026
-8.5290003 -8.9420004 -1.013
-8.5360003 -9.007 -1.0190001
-8.4560003 -8.9779997 -1.011
-8.6759996 -9.2709999 -1.0470001
-8.434 -9.04 -1.0140001
-8.5190001 -9.1890001 -1.031
-8.9849997 -9.7550001 -1.102
-8.2950001 -9.0600004 -1.006
-8.3549995 -9.1829996 -1.0190001
-8.2229996 -9.0959997 -1.0039999
-8.342 -9.2860003 -1.026
-8.3959999 -9.3760004 -1.036
-7.9089999 -8.8859997 -0.96799999
-7.8639998 -8.8909998 -0.96600002
-7.8369999 -8.9169998 -0.96600002
-7.8099999 -8.9429998 -0.96600002
-7.8210001 -9.0129995 -0.972
-7.7620001 -9.0010004 -0.96700001
-10.223 -11.907 -1.341
-10.233 -11.995 -1.348
-7.2270002 -8.5679998 -0.90100002
-7.1919999 -8.5810003 -0.89899999
-7.1550002 -8.592 -0.898
-7.2909999 -8.7840004 -0.921
-10.129 -12.297 -1.365
-10.068 -12.302 -1.3609999
-9.1569996 -11.329 -1.2309999
-9.1610003 -11.407 -1.237
-7.0040002 -8.7690001 -0.90200001
-6.9889998 -8.7779999 -0.90200001
-6.9850001 -8.8299999 -0.90600002
-6.9109998 -8.7919998 -0.898
-6.8649998 -8.79 -0.89499998
-6.8579998 -8.8389997 -0.89899999
-6.8800001 -8.9250002 -0.90700001
-6.79 -8.8660002 -0.89700001
-6.6939998 -8.7690001 -0.88300002
-6.6300001 -8.7980003 -0.88200003
-6.5469999 -8.7449999 -0.87300003
-6.5900002 -8.8599997 -0.884
-6.507 -8.8070002 -0.875
-6.4520001 -8.7889996 -0.87099999
-6.448 -8.8129997 -0.87199998
-6.447 -8.8710003 -0.87699997
-6.4450002 -8.9259996 -0.88099998
-6.3119998 -8.7989998 -0.86299998
-6.2709999 -8.8009996 -0.861
-6.2589998 -8.842 -0.86400002
-6.2880001 -8.9139996 -0.87099999
-6.3829999 -9.1099997 -0.89200002
-6.3800001 -9.1669998 -0.89700001
-9.2469997 -13.397 -1.399
-9.1899996 -13.403 -1.396
-9.1300001 -13.405 -1.393
-9.0769997 -13.419 -1.391
-9.033 -13.399 -1.387
-8.9770002 -13.405 -1.3839999
-8.9180002 -13.409 -1.381
-8.8570004 -13.408 -1.378
-8.8030005 -13.418 -1.376
-8.7399998 -13.414 -1.372
-8.684 -13.419 -1.37
-8.6490002 -13.411 -1.367
-8.5979996 -13.425 -1.3660001
-8.5539999 -13.448 -1.365
-8.4820004 -13.428 -1.36
-8.4390001 -13.453 -1.36
-8.3800001 -13.454 -1.357
-8.3330002 -13.472 -1.3559999
-8.2980003 -13.463 -1.353
-8.2370005 -13.458 -1.35
-8.1750002 -13.452 -1.346
-8.1309996 -13.474 -1.346
-8.0670004 -13.463 -1.341
-8.0179996 -13.477 -1.34
-7.9819999 -13.465 -1.337
-5.0089998 -8.4919996 -0.76800001
-4.987 -8.5150003 -0.76899999
-7.8249998 -13.488 -1.331
-5.0599999 -8.7670002 -0.79400003
-5.0310001 -8.7810001 -0.79400003
-4.9460001 -8.7259998 -0.78500003
-4.9590001 -8.8149996 -0.79299998
-6.2610002 -11.225 -1.062
-4.9699998 -8.9659996 -0.80699998
-4.915 -8.9329996 -0.801
-4.901 -8.974 -0.80400002
-6.1329999 -11.329 -1.0650001
-4.9200001 -9.1110001 -0.81699997
-4.9299998 -9.1990004 -0.82499999
-4.816 -9.0539999 -0.80699998
-4.8629999 -9.2119999 -0.82300001
-4.8319998 -9.224 -0.82200003
-4.8429999 -9.3170004 -0.83099997
-4.8039999 -9.3120003 -0.829
-4.7709999 -9.2840004 -0.82499999
-4.8639998 -9.5410004 -0.852
-4.8590002 -9.6059999 -0.85699999
-4.822 -9.6070004 -0.85600001
-4.8049998 -9.6490002 -0.85799998
-4.8600001 -9.8369999 -0.87699997
-4.8239999 -9.8039999 -0.87300003
-4.868 -9.9729996 -0.88999999
-4.8060002 -9.9230003 -0.88300002
-4.783 -9.9560003 -0.88499999
-4.757 -9.9820004 -0.88599998
-4.724 -9.993 -0.88499999
-4.7820001 -10.2 -0.90600002
-4.7810001 -10.241 -0.91000003
-4.7649999 -10.291 -0.91399997
-4.757 -10.358 -0.91900003
-4.7719998 -10.48 -0.93099999
-4.7579999 -10.537 -0.935
-4.8140001 -10.752 -0.95700002
-4.7519999 -10.703 -0.94999999
-4.7709999 -10.791 -0.95899999
-4.7550001 -10.847 -0.963
-4.7459998 -10.921 -0.96899998
-4.7709999 -11.075 -0.98400003
-4.7870002 -11.209 -0.99699998
-4.8179998 -11.38 -1.013
-4.822 -11.44 -1.0190001
-4.829 -11.558 -1.03
-4.7849998 -11.555 -1.028
-4.7989998 -11.694 -1.041
-4.776 -11.744 -1.045
-4.7969999 -11.903 -1.0599999
-4.7649999 -11.931 -1.062
-4.8080001 -12.096 -1.0779999
-4.8109999 -12.214 -1.089
-4.836 -12.393 -1.1059999
-5.5050001 -14.251 -1.3
-5.4699998 -14.292 -1.303
-5.105 -13.46 -1.214
-5.0609999 -13.472 -1.2130001
-5.0430002 -13.49 -1.214
-4.9949999 -13.491 -1.2130001
-4.9330001 -13.452 -1.207
-4.9000001 -13.492 -1.21
-4.8509998 -13.49 -1.2079999
-4.8210001 -13.539 -1.211
-4.816 -13.661 -1.223
-4.8439999 -13.812 -1.237
-4.8509998 -13.972 -1.252
-4.8499999 -14.113 -1.266
-4.8189998 -14.168 -1.27
-4.8150001 -14.306 -1.2819999
-4.836 -14.519 -1.303
-4.8080001 -14.511 -1.301
-4.7420001 -14.464 -1.295
-4.7220001 -14.557 -1.303
-4.8769999 -15.201 -1.368
-5.0370002 -15.875 -1.436
-4.9629998 -15.814 -1.428
-1.9119999 -6.1059999 -0.428
-1.887 -6.059 -0.42300001
-1.881 -6.1069999 -0.42699999
-4.8709998 -16.139 -1.456
-4.8249998 -16.171 -1.457
-4.7620001 -16.146 -1.4529999
-4.7020001 -16.129 -1.45
-4.6570001 -16.164 -1.452
-4.632 -16.172001 -1.452
-4.5689998 -16.143999 -1.448
-4.5149999 -16.146999 -1.447
-4.467 -16.17 -1.448
-4.4130001 -16.173 -1.446
-4.3670001 -16.202 -1.448
-4.3379998 -16.197001 -1.447
-4.283 -16.195 -1.4450001
-4.2319999 -16.209 -1.4450001
-4.1739998 -16.195 -1.442
-4.119 -16.188999 -1.441
-4.0689998 -16.205 -1.441
-4.0100002 -16.184999 -1.438
-3.984 -16.190001 -1.437
-3.9289999 -16.184999 -1.436
-3.8729999 -16.177999 -1.434
-3.8210001 -16.184 -1.433
-3.767 -16.18 -1.432
-3.691 -16.084999 -1.421
-1.765 -7.8010001 -0.58499998
-1.752 -7.8569999 -0.58999997
-1.727 -7.8629999 -0.58999997
-1.698 -7.849 -0.588
-1.67 -7.8379998 -0.58700001
-1.66 -7.9099998 -0.59299999
-1.752 -8.4230003 -0.64499998
-1.748 -8.5419998 -0.65600002
-1.743 -8.6590004 -0.667
-1.7410001 -8.7930002 -0.68000001
-1.742 -8.9449997 -0.69499999
-1.751 -9.1479998 -0.71499997
-1.749 -9.2959995 -0.72899997
-1.767 -9.4809999 -0.74699998
-1.749 -9.5509996 -0.75300002
-1.732 -9.6269999 -0.75999999
-1.704 -9.6459999 -0.76200002
-1.676 -9.6630001 -0.76300001
-1.647 -9.6820002 -0.764
-1.7410001 -10.442 -0.83899999
-1.761 -10.668 -0.86199999
-1.752 -10.825 -0.87699997
-1.75 -11.041 -0.898
-1.744 -11.232 -0.91600001
-1.734 -11.406 -0.93300003
-1.696 -11.394 -0.93099999
-1.66 -11.401 -0.93099999
-1.642 -11.402 -0.93099999
-1.661 -11.801 -0.97000003
-1.67 -12.152 -1.0039999
-1.605 -11.95 -0.98400003
-1.58 -12.055 -0.99400002
-1.551 -12.129 -1.001
-1.5190001 -12.181 -1.005
-1.511 -12.279 -1.015
-1.484 -12.386 -1.025
-1.446 -12.393 -1.025
-1.516 -13.374 -1.122
-1.475 -13.391 -1.123
-1.431 -13.38 -1.1210001
-1.41 -13.384 -1.122
-1.368 -13.382 -1.1210001
-1.326 -13.393 -1.122
-1.275 -13.298 -1.112
-1.198 -12.915 -1.074
-1.148 -12.812 -1.063
-1.103 -12.758 -1.057
-1.0829999 -12.755 -1.057
-1.0420001 -12.751 -1.056
-1.003 -12.772 -1.058
-0.96600002 -12.811 -1.062
-0.926 -12.818 -1.062
-0.88700002 -12.846 -1.0650001
-0.90200001 -14.06 -1.184
-0.86000001 -14.097 -1.187
-0.80400002 -13.885 -1.166
-0.75099999 -13.724 -1.15
-0.70899999 -13.75 -1.152
-0.662 -13.665 -1.1440001
-0.64200002 -13.7 -1.147
-0.60100001 -13.755 -1.152
-0.55599999 -13.712 -1.148
-0.50400001 -13.441 -1.1210001
-0.46000001 -13.416 -1.118
-0.41600001 -13.346 -1.1109999
-0.37200001 -13.262 -1.103
-0.35100001 -13.242 -1.101
-0.31099999 -13.307 -1.107
-0.12899999 -5.6500001 -0.35499999
-0.112 -5.6719999 -0.35699999
-0.093999997 -5.6630001 -0.35600001
-0.075999998 -5.6950002 -0.359
-0.067000002 -5.671 -0.35699999
-0.048999999 -5.6950002 -0.359
-0.030999999 -5.6950002 -0.359
-0.014 -5.6599998 -0.35600001
0.0040000002 -5.7010002 -0.36000001
0.022 -5.664 -0.35600001
0.039999999 -5.677 -0.35699999
0.048999999 -5.6690001 -0.35600001
0.067000002 -5.6830001 -0.35800001
0.085000001 -5.711 -0.361
0.102 -5.6690001 -0.35600001
0.121 -5.7020001 -0.36000001
0.138 -5.6659999 -0.35600001
0.156 -5.6810002 -0.35800001
0.16500001 -5.6869998 -0.35800001
0.183 -5.677 -0.35699999
0.20100001 -5.6939998 -0.359
0.21699999 -5.6529999 -0.35499999
0.237 -5.6950002 -0.359
0.25299999 -5.6620002 -0.35600001
0.26300001 -5.6810002 -0.35800001
0.28 -5.651 -0.35499999
0.30000001 -5.6900001 -0.359
0.315 -5.6570001 -0.35600001
0.336 -5.698 -0.36000001
0.352 -5.6630001 -0.35699999
0.37 -5.6750002 -0.35800001
0.37900001 -5.6729999 -0.35800001
0.39700001 -5.678 -0.359
0.417 -5.704 -0.361
0.43200001 -5.6570001 -0.35699999
0.45300001 -5.697 -0.361
0.46900001 -5.6760001 -0.359
0.48800001 -5.6900001 -0.361
0.495 -5.6700001 -0.359
0.514 -5.678 -0.36000001
0.53500003 -5.71 -0.36300001
0.54900002 -5.6669998 -0.359
0.57200003 -5.711 -0.36300001
0.58399999 -5.6529999 -0.35800001
0.60799998 -5.7090001 -0.36399999
1.663 -14.584 -1.2410001
1.706 -14.561 -1.24
1.693 -14.071 -1.192
1.738 -14.07 -1.192
1.7920001 -14.143 -1.2
1.8099999 -14.107 -1.197
1.834 -13.951 -1.182
1.858 -13.803 -1.168
1.9170001 -13.906 -1.179
2.0250001 -14.347 -1.223
2.0469999 -14.185 -1.207
2.0929999 -14.188 -1.2079999
2.1110001 -14.155 -1.206
2.158 -14.168 -1.207
2.1900001 -14.083 -1.2
2.2290001 -14.041 -1.196
2.2609999 -13.959 -1.189
2.3 -13.924 -1.186
2.3069999 -13.832 -1.177
2.3169999 -13.631 -1.158
2.414 -13.931 -1.188
2.451 -13.886 -1.1849999
2.5450001 -14.159 -1.2130001
2.596 -14.182 -1.216
2.6470001 -14.211 -1.22
2.6670001 -14.193 -1.2180001
2.7049999 -14.149 -1.215
2.767 -14.233 -1.224
2.8099999 -14.216 -1.223
2.8570001 -14.219 -1.224
2.892 -14.163 -1.22
2.9579999 -14.253 -1.23
2.9820001 -14.256 -1.23
3.0510001 -14.36 -1.242
2.6140001 -12.135 -1.0190001
2.5539999 -11.685 -0.97500002
3.191 -14.356 -1.244
3.145 -13.944 -1.204
2.5869999 -11.407 -0.949
2.6340001 -11.445 -0.95300001
2.678 -11.474 -0.95700002
2.714 -11.463 -0.95700002
2.6960001 -11.234 -0.93400002
3.4389999 -14.104 -1.226
1.484 -6.0250001 -0.40900001
2.7850001 -11.289 -0.94199997
1.503 -6.02 -0.40900001
1.526 -6.033 -0.41100001
1.545 -6.0279999 -0.41100001
1.5650001 -6.0289998 -0.41100001
2.993 -11.082 -0.92699999
3.0369999 -11.104 -0.93000001
3.1600001 -11.412 -0.963
3.1289999 -11.163 -0.93800002
2.806 -9.9020004 -0.81099999
2.829 -9.8660002 -0.80800003
3.1960001 -11.005 -0.92500001
3.23 -11.055 -0.93099999
3.24 -10.963 -0.92299998
3.233 -10.816 -0.90799999
3.29 -10.88 -0.91600001
2.825 -9.2510004 -0.75
2.8410001 -9.1999998 -0.745
2.835 -9.1309996 -0.73900002
2.852 -9.0839996 -0.73500001
2.882 -9.0810003 -0.73500001
2.9219999 -9.1079998 -0.73900002
2.9549999 -9.1120005 -0.741
2.9590001 -9.0290003 -0.73299998
3.0039999 -9.066 -0.73799998
3.036 -9.1160002 -0.74299997
3.003 -8.9239998 -0.72399998
3.033 -8.9219999 -0.72500002
3.105 -9.0380001 -0.73799998
3.1289999 -9.0170002 -0.73699999
3.2479999 -9.2629995 -0.764
3.2309999 -9.1230001 -0.75
3.2019999 -8.9980001 -0.73799998
3.2869999 -9.1450005 -0.75400001
3.326 -9.1610003 -0.75700003
3.3499999 -9.1389999 -0.75599998
3.3210001 -8.974 -0.74000001
3.385 -9.0570002 -0.74900001
3.3299999 -8.8710003 -0.73000002
3.414 -9.007 -0.74599999
3.46 -9.0410004 -0.75
3.4719999 -8.9890003 -0.74599999
3.503 -8.9840002 -0.74699998
3.4749999 -8.8319998 -0.73199999
3.4960001 -8.8030005 -0.73000002
3.5120001 -8.8050003 -0.73100001
3.595 -8.9300003 -0.745
3.631 -8.9370003 -0.74699998
3.6670001 -8.9460001 -0.74900001
3.75 -9.0649996 -0.76300001
3.6949999 -8.8549995 -0.74199998
3.852 -9.1470003 -0.77499998
3.8080001 -9.0059996 -0.75999999
5.0050001 -11.713 -1.051
3.954 -9.1859999 -0.78200001
3.9579999 -9.1169996 -0.77600002
5.2010002 -11.86 -1.072
5.2540002 -11.878 -1.075
3.957 -8.9239998 -0.759
5.2090001 -11.63 -1.051
5.1810002 -11.471 -1.036
5.1950002 -11.407 -1.031
4.3600001 -9.5039997 -0.82700002
4.3390002 -9.3800001 -0.815
4.3189998 -9.2620001 -0.80299997
4.381 -9.3559999 -0.81400001
4.3850002 -9.2889996 -0.80900002
4.4200001 -9.2869997 -0.81
4.4559999 -9.2880001 -0.81199998
4.4899998 -9.2840004 -0.81300002
4.5289998 -9.29 -0.815
4.566 -9.2919998 -0.81699997
4.5809999 -9.2840004 -0.81699997
4.618 -9.2860003 -0.81800002
4.6620002 -9.3000002 -0.82099998
4.691 -9.2849998 -0.82099998
4.7280002 -9.2860003 -0.82300001
4.7659998 -9.2889996 -0.82499999
4.7820001 -9.283 -0.82499999
4.8270001 -9.2980003 -0.829
4.8590002 -9.2880001 -0.829
4.9070001 -9.3100004 -0.833
4.9710002 -9.3599997 -0.84100002
3.28 -6.1469998 -0.484
3.2520001 -6.0489998 -0.47400001
3.2720001 -6.0630002 -0.47600001
3.299 -6.0689998 -0.47799999
3.3180001 -6.0580001 -0.47799999
3.3499999 -6.0710001 -0.48100001
3.348 -6.0240002 -0.477
5.2740002 -9.2860003 -0.84899998
5.3169999 -9.2939997 -0.85100001
5.3379998 -9.2609997 -0.85000002
5.3850002 -9.276 -0.85299999
5.4089999 -9.25 -0.852
5.447 -9.2480001 -0.85399997
5.474 -9.2600002 -0.85600001
3.598 -6.0609999 -0.49200001
3.638 -6.0840001 -0.49599999
3.648 -6.0570002 -0.49399999
3.6719999 -6.0539999 -0.495
3.6989999 -6.0560002 -0.49700001
3.7279999 -6.0599999 -0.498
3.733 -6.0469999 -0.498
3.7720001 -6.0679998 -0.50099999
3.816 -6.0960002 -0.50599998
3.822 -6.0619998 -0.50400001
3.846 -6.059 -0.505
3.8759999 -6.0630002 -0.50599998
3.902 -6.0630002 -0.50800002
3.9230001 -6.073 -0.50999999
3.9460001 -6.0679998 -0.51099998
3.98 -6.0770001 -0.51300001
4.0040002 -6.073 -0.514
4.0300002 -6.0700002 -0.51499999
4.0599999 -6.0739999 -0.51700002
4.073 -6.072 -0.51800001
4.1100001 -6.086 -0.52100003
4.1290002 -6.073 -0.52100003
4.1539998 -6.0679998 -0.52200001
4.191 -6.0809999 -0.52499998
4.223 -6.086 -0.52700001
4.2420001 -6.073 -0.52700001
4.263 -6.0819998 -0.52899998
4.2839999 -6.072 -0.52999997
4.3200002 -6.0830002 -0.53200001
4.3540001 -6.0890002 -0.53500003
4.382 -6.0879998 -0.53600001
4.4089999 -6.085 -0.53799999
4.4330001 -6.0780001 -0.53899997
4.4499998 -6.0799999 -0.54000002
4.4770002 -6.0780001 -0.54100001
4.5219998 -6.099 -0.54500002
4.54 -6.0830002 -0.54500002
4.559 -6.0679998 -0.54500002
4.599 -6.0809999 -0.54900002
4.618 -6.086 -0.55000001
4.651 -6.0890002 -0.55199999
4.678 -6.086 -0.55400002
4.711 -6.0879998 -0.55599999
7.4689999 -9.5050001 -0.98699999
4.8000002 -6.0840001 -0.56099999
4.8319998 -6.1040001 -0.56400001
7.4660001 -9.2889996 -0.97000003
7.5300002 -9.309 -0.97600001
4.9549999 -6.0999999 -0.57200003
7.6620002 -9.2910004 -0.98299998
5.29 -6.4070001 -0.616
5.0650001 -6.0970001 -0.57800001
5.0840001 -6.0809999 -0.57800001
5.1269999 -6.0929999 -0.58200002
5.1550002 -6.0869999 -0.583
5.1849999 -6.085 -0.58499998
8.0139999 -9.2930002 -1.005
5.2839999 -6.1020002 -0.59299999
5.316 -6.0999999 -0.59399998
8.3380003 -9.4259996 -1.036
5.4200001 -6.1020002 -0.60100001
5.4580002 -6.125 -0.60500002
8.3570004 -9.2989998 -1.028
8.4049997 -9.2939997 -1.031
5.546 -6.1069999 -0.61000001
5.7480001 -6.2490001 -0.634
5.6669998 -6.1420002 -0.62
5.6750002 -6.112 -0.61900002
5.7189999 -6.1209998 -0.62199998
5.776 -6.1430001 -0.62800002
5.7740002 -6.1020002 -0.625
5.829 -6.1209998 -0.63
5.8769999 -6.1329999 -0.634
5.902 -6.1389999 -0.63599998
5.928 -6.1279998 -0.63700002
5.961 -6.1230001 -0.639
6.0120001 -6.1370001 -0.64399999
6.0339999 -6.1209998 -0.64399999
6.0710001 -6.119 -0.64600003
6.1329999 -6.1430001 -0.65200001
6.1459999 -6.1370001 -0.653
6.165 -6.1170001 -0.653
6.224 -6.1370001 -0.65799999
6.2709999 -6.1440001 -0.662
6.303 -6.1360002 -0.66399997
6.3179998 -6.112 -0.66299999
8.6780005 -8.3299999 -0.98100001
6.3909998 -6.125 -0.66900003
9.9189997 -9.368 -1.14
6.5170002 -6.1290002 -0.67799997
8.658 -8.0290003 -0.95999998
6.6339998 -6.1409998 -0.68800002
8.7460003 -7.9840002 -0.963
6.7519999 -6.132 -0.69599998
6.7810001 -6.1199999 -0.69700003
10.256 -9.1800003 -1.152
6.8260002 -6.0830002 -0.69800001
6.881 -6.1129999 -0.704
6.9289999 -6.1160002 -0.70700002
6.9860001 -6.1269999 -0.71200001
7.0120001 -6.112 -0.713
10.591 -9.1549997 -1.175
7.119 -6.1259999 -0.722
7.1529999 -6.1350002 -0.72500002
10.515 -8.9469995 -1.156
7.2410002 -6.1329999 -0.73199999
10.646 -8.9429998 -1.165
7.3499999 -6.1459999 -0.741
7.3509998 -6.1069999 -0.73799998
7.5300002 -6.2160001 -0.759
7.461 -6.1389999 -0.74900001
7.5009999 -6.132 -0.75099999
10.912 -8.849 -1.1799999
7.6030002 -6.1360002 -0.759
11.047 -8.8439999 -1.1900001
7.7049999 -6.1389999 -0.76700002
11.088 -8.7349997 -1.186
7.8330002 -6.1409998 -0.77700001
7.8870001 -6.1430001 -0.78200001
11.177 -8.6359997 -1.187
11.195 -8.5380001 -1.183
8.0780001 -6.1490002 -0.79699999
8.1140003 -6.1370001 -0.79900002
11.222 -8.4200001 -1.178
8.2390003 -6.1500001 -0.81
11.194 -8.29 -1.168
8.323 -6.131 -0.815
11.198 -8.184 -1.1619999
8.427 -6.1469998 -0.824
8.493 -6.1539998 -0.82999998
11.207 -8.0570002 -1.155
8.6000004 -6.1490002 -0.838
8.6920004 -6.1739998 -0.847
8.6969995 -6.1360002 -0.84500003
8.7390003 -6.145 -0.84899998
8.7860003 -6.1370001 -0.852
8.8280001 -6.125 -0.85500002
8.9259996 -6.152 -0.86400002
11.408 -7.8010001 -1.1569999
9.0469999 -6.151 -0.87400001
9.0810003 -6.1329999 -0.87599999
9.1569996 -6.1630001 -0.884
9.21 -6.1560001 -0.88800001
9.2790003 -6.1599998 -0.89399999
11.608 -7.6459999 -1.165
9.3859997 -6.1459999 -0.90200001
9.4469995 -6.1430001 -0.90700001
9.5380001 -6.1599998 -0.91500002
9.6450005 -6.2069998 -0.926
9.6409998 -6.1620002 -0.92400002
11.646 -7.3860002 -1.154
9.7770004 -6.1630001 -0.935
11.751 -7.349 -1.161
9.9169998 -6.164 -0.94700003
10.009 -6.178 -0.95499998
10.045 -6.177 -0.958
10.125 -6.1830001 -0.96499997
10.185 -6.1760001 -0.97000003
10.251 -6.171 -0.97500002
10.337 -6.1789999 -0.98299998
10.363 -6.1500001 -0.98299998
10.467 -6.1900001 -0.99400002
10.5 -6.165 -0.99599999
10.558 -6.1539998 -1
10.635 -6.1539998 -1.007
10.743 -6.171 -1.017
10.828 -6.1750002 -1.024
12.268 -6.941 -1.184
10.972 -6.1880002 -1.0369999
12.298 -6.882 -1.184
11.103 -6.1700001 -1.0470001
11.216 -6.1869998 -1.058
12.352 -6.7600002 -1.183
11.454 -6.224 -1.08
11.445 -6.1960001 -1.0779999
11.754 -6.3150001 -1.11
11.673 -6.224 -1.099
11.696 -6.1900001 -1.1
11.79 -6.1919999 -1.108
11.836 -6.1680002 -1.1109999
11.938 -6.1739998 -1.12
12.003 -6.1830001 -1.126
12.114 -6.1919999 -1.136
12.201 -6.1880002 -1.1440001
12.281 -6.1799998 -1.15
12.368 -6.1750002 -1.158
12.468 -6.1760001 -1.166
12.584 -6.184 -1.177
12.66 -6.197 -1.184
12.755 -6.1929998 -1.192
12.804 -6.1680002 -1.196
12.897 -6.1630001 -1.204
13.012 -6.1669998 -1.214
13.113 -6.164 -1.223
13.207 -6.1830001 -1.232
13.275 -6.164 -1.237
13.401 -6.171 -1.249
13.493 -6.1620002 -1.257
13.574 -6.1469998 -1.263
13.597 -6.1059999 -1.2640001
13.609 -6.0599999 -1.263
13.669 -6.0609999 -1.268
13.692 -6.02 -1.2690001
13.722 -5.9819999 -1.27
13.781 -5.9559999 -1.274
13.797 -5.9120002 -1.274
13.792 -5.8579998 -1.272
13.832 -5.8239999 -1.274
13.862 -5.8109999 -1.276
13.889 -5.7709999 -1.277
13.913 -5.73 -1.278
13.942 -5.691 -1.279
13.971 -5.651 -1.28
13.955 -5.5939999 -1.276
13.958 -5.5700002 -1.276
13.994 -5.533 -1.278
14.021 -5.493 -1.279
14.07 -5.461 -1.2819999
14.085 -5.4159999 -1.2819999
14.113 -5.3759999 -1.283
14.204 -5.3600001 -1.291
8.908 -3.3559999 -0.73500001
8.9879999 -3.3529999 -0.74199998
8.8780003 -3.2809999 -0.72899997
8.9090004 -3.2609999 -0.73199999
8.8450003 -3.2060001 -0.72399998
8.9200001 -3.201 -0.73100001
8.8610001 -3.1489999 -0.72299999
8.8900003 -3.1429999 -0.72600001
8.8100004 -3.0840001 -0.71600002
9.0299997 -3.1289999 -0.73799998
8.7650003 -3.007 -0.70999998
8.7530003 -2.9719999 -0.708
8.7530003 -2.9419999 -0.70700002
8.7559996 -2.8970001 -0.70599997
8.776 -2.8729999 -0.70700002
8.8140001 -2.8540001 -0.70999998
8.835 -2.8 -0.70999998
8.8170004 -2.7639999 -0.70700002
8.8439999 -2.757 -0.70999998
8.7939997 -2.7119999 -0.704
8.7989998 -2.6830001 -0.70300001
8.7880001 -2.6489999 -0.70099998
8.7620001 -2.612 -0.69800001
8.7659998 -2.5829999 -0.69700003
8.7650003 -2.5680001 -0.69700003
8.7530003 -2.5350001 -0.69499999
8.7650003 -2.5079999 -0.69499999
8.7729998 -2.4809999 -0.69499999
8.7810001 -2.4530001 -0.69499999
8.7770004 -2.4219999 -0.69400001
8.7959995 -2.398 -0.69499999
8.7819996 -2.3789999 -0.69300002
8.7860003 -2.3510001 -0.69300002
8.7880001 -2.322 -0.69199997
8.7989998 -2.2950001 -0.69300002
8.8120003 -2.2690001 -0.69300002
8.8109999 -2.2390001 -0.69300002
8.8179998 -2.211 -0.69300002
8.8269997 -2.1989999 -0.69300002
8.8299999 -2.1700001 -0.69300002
8.8240004 -2.1389999 -0.69099998
8.842 -2.1140001 -0.69300002
8.8540001 -2.0880001 -0.69300002
8.8570004 -2.059 -0.69300002
8.8690004 -2.033 -0.69300002
8.8629999 -2.017 -0.69199997
8.8669996 -1.988 -0.69199997
8.8909998 -1.964 -0.69400001
8.901 -1.937 -0.69400001
8.9069996 -1.909 -0.69400001
8.9610004 -1.891 -0.699
8.9969997 -1.8839999 -0.70300001
9.007 -1.857 -0.70300001
9.2299995 -1.872 -0.72500002
9.0459995 -1.8049999 -0.70599997
9.7609997 -1.74 -0.77399999
9.941 -1.739 -0.79100001
10.123 -1.738 -0.80900002
11.088 -1.775 -0.903
11.412 -1.79 -0.93400002
11.793 -1.811 -0.972
12.283 -1.846 -1.02
16.538 -2.3959999 -1.441
16.549 -2.345 -1.442
16.596001 -2.2980001 -1.4450001
16.65 -2.2520001 -1.45
16.705 -2.2060001 -1.455
16.764999 -2.1600001 -1.46
16.798 -2.138 -1.4630001
16.822001 -2.0869999 -1.465
16.874001 -2.04 -1.469
16.902 -1.989 -1.471
16.968 -1.943 -1.477
17.052999 -1.898 -1.485
17.110001 -1.85 -1.49
17.155001 -1.8279999 -1.494
17.181999 -1.776 -1.4960001
17.212999 -1.724 -1.499
17.26 -1.674 -1.503
17.450001 -1.637 -1.521
17.479 -1.584 -1.524
17.490999 -1.558 -1.525
17.476 -1.501 -1.523
17.485001 -1.447 -1.523
17.469 -1.39 -1.521
17.466 -1.335 -1.52
17.464001 -1.279 -1.52
17.455999 -1.224 -1.5190001
17.483999 -1.198 -1.521
17.487 -1.143 -1.521
17.485001 -1.0880001 -1.521
17.504 -1.034 -1.522
17.507 -0.97899997 -1.522
17.504 -0.92299998 -1.521
17.525 -0.89700001 -1.523
17.535999 -0.84200001 -1.524
17.541 -0.787 -1.524
17.549 -0.73199999 -1.525
17.549 -0.67699999 -1.525
17.555 -0.62199998 -1.525
17.565001 -0.56699997 -1.526
17.558001 -0.53899997 -1.525
17.549999 -0.484 -1.524
17.555 -0.42899999 -1.525
17.558001 -0.37400001 -1.525
17.559 -0.31900001 -1.525
17.549999 -0.26300001 -1.524
17.549 -0.236 -1.524
17.545 -0.18099999 -1.523
17.559999 -0.126 -1.525
17.577999 -0.07 -1.526
17.568001 -0.015 -1.525
16.669001 0.012 -1.54
16.66 0.064999998 -1.539
16.662001 0.117 -1.539
16.666 0.169 -1.539
16.65 0.19499999 -1.538
16.650999 0.248 -1.538
16.66 0.30000001 -1.539
16.655001 0.35299999 -1.539
16.66 0.405 -1.539
16.653999 0.45699999 -1.539
16.65 0.48300001 -1.538
16.656 0.53600001 -1.539
16.667999 0.58899999 -1.541
16.65 0.63999999 -1.539
16.66 0.69300002 -1.54
16.664 0.74599999 -1.541
16.646999 0.79699999 -1.539
16.66 0.824 -1.541
16.655001 0.87699997 -1.541
16.663 0.92900002 -1.5420001
16.652 0.98100001 -1.541
16.66 1.034 -1.5420001
16.649 1.086 -1.541
16.642 1.138 -1.541
16.653999 1.165 -1.5420001
16.65 1.2180001 -1.5420001
16.646 1.27 -1.5420001
16.656 1.323 -1.544
16.66 1.376 -1.545
16.655001 1.429 -1.545
16.674999 1.457 -1.5470001
16.688 1.511 -1.549
16.701 1.5650001 -1.551
16.712 1.619 -1.552
16.714001 1.6720001 -1.553
16.721001 1.726 -1.554
16.747 1.781 -1.558
16.76 1.809 -1.559
16.764 1.863 -1.5599999
16.785999 1.919 -1.563
16.788 1.973 -1.564
16.795 2.027 -1.566
16.822001 2.0840001 -1.569
16.816999 2.1099999 -1.569
16.827999 2.165 -1.571
16.849001 2.221 -1.574
16.848 2.2750001 -1.574
16.860001 2.3310001 -1.576
16.872999 2.3870001 -1.5779999
16.886999 2.4430001 -1.581
16.900999 2.4719999 -1.5829999
16.924 2.529 -1.586
16.917999 2.5829999 -1.586
16.92 2.638 -1.587
16.934999 2.694 -1.59
16.944 2.75 -1.591
16.957001 2.8069999 -1.594
16.964001 2.836 -1.595
16.969 2.891 -1.596
16.976 2.947 -1.598
16.996 3.006 -1.601
16.993999 3.0610001 -1.602
17.006001 3.118 -1.604
17.014999 3.175 -1.6059999
17.030001 3.2049999 -1.608
17.030001 3.2609999 -1.61
17.045 3.319 -1.612
17.049999 3.3759999 -1.614
17.061001 3.4330001 -1.6160001
17.061001 3.4890001 -1.617
17.08 3.549 -1.6210001
17.094999 3.5799999 -1.623
17.105 3.638 -1.625
17.106001 3.6949999 -1.626
17.121 3.7539999 -1.6289999
17.132999 3.813 -1.632
17.146 3.8729999 -1.6339999
17.169001 3.9059999 -1.638
17.184999 3.967 -1.641
17.202 4.0279999 -1.6440001
17.209999 4.0869999 -1.646
17.254 4.1539998 -1.652
17.306 4.224 -1.659
17.355 4.2940001 -1.666
17.299999 4.309 -1.661
17.24 4.3520002 -1.656
17.211 4.402 -1.654
17.198999 4.4569998 -1.654
17.186001 4.5110002 -1.654
17.143 4.5570002 -1.651
17.117001 4.579 -1.649
17.084999 4.6279998 -1.647
17.059 4.6789999 -1.646
17.018999 4.7249999 -1.643
16.985001 4.7740002 -1.641
16.962 4.8249998 -1.64
16.926001 4.8720002 -1.638
16.892 4.8909998 -1.635
16.855 4.9380002 -1.633
16.837999 4.9899998 -1.633
16.799 5.0359998 -1.63
16.761999 5.0830002 -1.628
16.731001 5.131 -1.626
16.683001 5.1729999 -1.623
16.663 5.1960001 -1.622
16.624001 5.2410002 -1.619
16.573 5.2820001 -1.615
16.539 5.329 -1.613
16.502001 5.3740001 -1.6109999
16.472 5.4219999 -1.61
16.472 5.4510002 -1.6109999
16.361 5.4710002 -1.6
16.358999 5.527 -1.602
16.339001 5.5780001 -1.602
16.292 5.619 -1.599
16.254999 5.664 -1.596
16.222 5.71 -1.595
16.184999 5.7249999 -1.592
16.041 5.7309999 -1.5779999
15.993 5.7709999 -1.574
16.087 5.862 -1.587
16.054001 5.9070001 -1.585
16.035 5.9569998 -1.585
16.007 5.9749999 -1.5829999
15.94 6.0079999 -1.5779999
15.956 6.0710001 -1.582
15.926 6.1170001 -1.58
15.875 6.1550002 -1.577
15.895 6.2199998 -1.581
15.846 6.2579999 -1.5779999
15.71 6.2329998 -1.564
15.714 6.2919998 -1.567
15.805 6.3860002 -1.579
15.785 6.4359999 -1.579
15.798 6.4990001 -1.5829999
15.752 6.5380001 -1.58
15.665 6.5599999 -1.572
15.636 6.5760002 -1.5700001
15.661 6.645 -1.575
15.542 6.652 -1.564
15.608 6.7379999 -1.574
15.585 6.7870002 -1.574
15.589 6.8470001 -1.577
15.493 6.8629999 -1.568
15.49 6.8899999 -1.569
15.504 6.9549999 -1.573
15.433 6.9819999 -1.568
15.477 7.0599999 -1.575
15.445 7.1040001 -1.574
15.417 7.1500001 -1.574
15.394 7.1690001 -1.572
15.371 7.217 -1.572
7.8720002 3.74 -0.70999998
7.803 3.7379999 -0.70300001
7.7969999 3.7650001 -0.70300001
7.7379999 3.767 -0.69800001
7.744 3.8 -0.69999999
7.704 3.7950001 -0.69599998
7.724 3.835 -0.69999999
7.73 3.869 -0.70200002
7.6950002 3.881 -0.699
7.7020001 3.915 -0.70200002
7.697 3.9430001 -0.70200002
7.7049999 3.9619999 -0.704
7.691 3.9860001 -0.704
7.7049999 4.0240002 -0.70700002
7.6950002 4.0500002 -0.70700002
7.6760001 4.0700002 -0.70700002
7.684 4.105 -0.70899999
8.0799999 4.348 -0.75700003
8.3199997 4.493 -0.787
8.1120005 4.447 -0.76499999
8.0979996 4.506 -0.76700002
8.1090002 4.546 -0.76999998
7.6129999 4.3169999 -0.713
7.7779999 4.4419999 -0.73500001
7.3390002 4.223 -0.68400002
7.3179998 4.2420001 -0.68300003
7.3829999 4.3099999 -0.69199997
7.323 4.3060002 -0.68599999
7.3670001 4.348 -0.69300002
7.3829999 4.388 -0.69599998
14.63 8.7910004 -1.581
14.557 8.809 -1.576
14.342 8.7410002 -1.553
14.141 8.6800003 -1.5319999
14.08 8.6730003 -1.526
13.973 8.6689997 -1.516
13.97 8.7270002 -1.5190001
13.915 8.7539997 -1.516
13.859 8.7799997 -1.512
13.793 8.7989998 -1.507
13.717 8.7810001 -1.5
13.629 8.7849998 -1.492
13.543 8.79 -1.485
13.462 8.7980003 -1.478
13.369 8.7969999 -1.47
13.285 8.802 -1.4630001
13.201 8.8059998 -1.456
13.134 8.7919998 -1.449
13.05 8.7950001 -1.442
12.959 8.7930002 -1.434
12.886 8.8030005 -1.429
12.778 8.7889996 -1.419
12.718 8.8059998 -1.414
12.648 8.8170004 -1.409
12.58 8.7989998 -1.402
12.495 8.7980003 -1.395
12.411 8.7969999 -1.388
12.346 8.8100004 -1.383
12.281 8.8219995 -1.378
12.193 8.8170004 -1.37
12.13 8.8299999 -1.3660001
12.053 8.8030005 -1.358
11.978 8.8059998 -1.351
11.927 8.8269997 -1.349
11.841 8.8210001 -1.341
11.781 8.8339996 -1.337
11.589 8.7480001 -1.3150001
11.536 8.7360001 -1.3099999
11.458 8.7340002 -1.303
11.389 8.7379999 -1.298
11.316 8.7390003 -1.2920001
11.248 8.743 -1.2869999
11.181 8.7469997 -1.281
11.142 8.7740002 -1.28
11.157 8.8129997 -1.284
11.152 8.8669996 -1.2869999
11.162 8.9320002 -1.2920001
11.116 8.9530001 -1.29
11.037 8.9469995 -1.283
10.989 8.9650002 -1.28
10.923 8.9399996 -1.273
10.871 8.9549999 -1.27
10.788 8.9429998 -1.262
10.741 8.9619999 -1.26
10.666 8.9560003 -1.253
10.612 8.9680004 -1.25
10.54 8.9639997 -1.244
10.5 8.9580002 -1.24
10.437 8.9619999 -1.2359999
10.378 8.9680004 -1.2309999
10.319 8.974 -1.227
10.266 8.9849997 -1.224
10.211 8.9940004 -1.22
10.151 8.9689999 -1.214
10.093 8.974 -1.209
10.02 8.9659996 -1.2029999
9.9350004 8.9469995 -1.1950001
9.9060001 8.9770002 -1.1950001
9.8450003 8.9790001 -1.191
9.783 8.9790001 -1.186
9.7410002 8.9689999 -1.182
9.6870003 8.9750004 -1.178
